VERSION .7
FIELDS x y z rgb
SIZE 4 4 4 4
TYPE F F F F
COUNT 1 1 1 1
WIDTH 1013
HEIGHT 1
VIEWPOINT -1.950000 -2.316000 -7.040000 1 0 0 0
POINTS 1013
DATA ascii
1731.768311 335.797058 133.972534 9.15763e-041
1704.067383 -92.019936 131.718903 1.4877e-038
1730.604980 398.996155 133.878006 9.1488e-041
1702.162231 -32.159775 131.564026 1.72647e-038
1727.143066 462.522430 133.596497 2.4792e-039
1695.867798 -458.872620 136.720474 9.16141e-041
1737.559448 28.155682 140.251328 9.15763e-041
1695.175903 -395.530304 136.661987 9.14768e-041
1705.588013 -92.124619 137.544006 2.35013e-038
1688.253540 -332.033875 136.075912 4.95876e-039
1707.380615 147.765869 137.696121 9.91787e-039
1686.879883 -270.757507 135.959686 9.15384e-041
1718.922363 209.736282 138.673477 9.1551e-041
1675.406006 -209.006409 134.988235 1.64382e-038
1702.626587 268.628082 137.293747 9.15763e-041
1709.365845 -152.572571 137.863815 8.26484e-039
1737.159912 336.941925 140.217896 9.15636e-041
1709.568237 -92.333961 137.881042 1.72647e-038
1737.895386 400.795776 140.280258 8.26161e-040
1699.700684 -32.124878 137.045578 2.22238e-038
1722.817261 461.487152 139.003616 2.35077e-038
1695.355591 -458.872650 142.646072 9.15889e-041
1727.074829 27.981150 145.444077 9.14768e-041
1710.193604 -399.129547 143.954727 9.1551e-041
1703.083374 -92.019951 143.328079 1.97443e-038
1691.655029 -332.797089 142.319885 9.15132e-041
1692.972168 146.545685 142.436691 9.09136e-039
1678.499512 -269.506042 141.159790 9.15132e-041
1730.267700 211.198715 145.725906 9.16141e-041
1674.900024 -209.006424 140.842422 4.13224e-039
1711.951050 270.192383 144.110626 9.16393e-041
1716.788330 -153.269806 144.536667 2.4792e-039
1732.723999 336.178650 145.942673 9.15132e-041
1717.010132 -92.752655 144.556305 1.80912e-038
1731.546875 399.446014 145.838959 9.15132e-041
1699.187378 -32.124886 142.984573 1.72647e-038
1720.372559 460.969482 144.853561 9.09136e-039
1706.365479 -461.978455 149.628433 9.15384e-041
1722.549316 27.911333 151.113312 9.14768e-041
1690.250122 -394.630524 148.150604 9.15006e-041
1706.525879 -92.229301 149.643646 2.4792e-039
1691.123413 -332.797119 148.230759 9.14768e-041
1708.312500 147.940170 149.807816 8.26484e-039
1674.037720 -268.880341 146.663925 9.15132e-041
1709.955933 208.761322 149.958603 9.15763e-041
1684.257568 -210.225113 147.601273 4.95876e-039
1717.314331 271.130981 150.633545 9.16519e-041
1716.248779 -153.269821 150.535248 7.43832e-039
1738.044556 337.323517 152.534790 9.15763e-041
1700.559204 -91.915291 149.096436 7.43832e-039
1740.705688 401.695526 152.778915 9.1488e-041
1706.618652 -32.264511 149.652222 1.72647e-038
1725.603271 462.522400 151.393951 1.65268e-039
1705.808105 -461.978455 155.590607 8.26161e-040
1731.940186 28.085848 158.079849 1.65268e-039
1695.518066 -395.980255 154.610764 1.65268e-039
1698.015503 -91.810623 154.848999 9.14768e-041
1694.479858 -333.560364 154.511978 9.14768e-041
1721.638550 149.160339 157.098969 1.4877e-038
1681.356812 -270.131805 153.262360 9.15384e-041
1709.397461 208.761322 155.933319 9.15763e-041
1683.707520 -210.225128 153.486282 2.35077e-038
1712.820557 270.505249 156.259384 9.16519e-041
1719.655151 -153.618454 156.909683 2.05708e-038
1727.704834 335.415405 157.676910 9.15636e-041
1698.015503 -91.810623 154.848999 1.4877e-038
1714.917603 395.846802 156.459259 9.15132e-041
1710.042603 -32.334332 155.994431 1.4877e-038
1719.270142 460.969482 156.873840 4.95876e-039
1705.230103 -461.978455 161.550812 9.14768e-041
1731.353271 28.085840 164.131241 9.1551e-041
1691.064819 -395.080444 160.152023 9.16015e-041
1699.427734 -91.915306 160.978287 9.15132e-041
1684.136841 -331.652283 159.467926 1.65268e-039
1711.141357 148.288773 162.135376 2.13973e-038
1684.718628 -270.757538 159.525482 9.14768e-041
1716.720093 209.736252 162.686386 9.16141e-041
1681.161377 -209.981400 159.174255 1.97443e-038
1708.308472 269.879517 161.855789 9.15889e-041
1725.020630 -154.141403 163.505615 2.34758e-038
1734.934326 336.941895 164.485291 9.15636e-041
1701.415283 -92.019974 161.174561 1.57035e-038
1729.850952 399.446014 163.983368 9.15258e-041
1691.552979 -32.020191 160.200699 2.05708e-038
1720.610107 461.487122 163.070862 1.15709e-038
1696.943848 -459.907959 166.722687 9.14768e-041
1736.713135 28.190544 170.790955 3.30572e-039
1705.979858 -398.679688 167.646988 1.65268e-039
1698.830811 -91.915314 166.916168 7.43832e-039
1681.592285 -331.270660 165.152695 4.95876e-039
1708.558350 148.114456 167.911423 2.35013e-038
1686.092163 -271.070435 165.613022 1.65268e-039
1720.066772 210.223740 169.088593 9.15889e-041
1686.495361 -210.712631 165.654343 1.57035e-038
1705.743408 269.566620 167.623672 9.16267e-041
1722.432739 -153.967087 169.330109 2.3479e-038
1740.184204 338.086700 171.146393 9.16015e-041
1700.817749 -92.019981 167.119385 1.57035e-038
1729.243408 399.445984 170.027435 9.16645e-041
1692.948242 -32.055107 166.314575 1.97443e-038
1712.318481 459.416534 168.296417 4.13224e-039
1696.358276 -459.907959 172.355453 9.15384e-041
1724.182129 27.981110 175.295212 3.30572e-039
1703.453247 -398.229767 173.105011 3.30572e-039
1706.189453 -92.334007 173.394440 1.72647e-038
1686.869263 -332.415527 171.353271 1.65268e-039
1700.043335 147.417206 172.745529 1.97443e-038
1675.688110 -269.506104 170.172272 9.15132e-041
1725.395508 210.954941 175.423630 9.16519e-041
1697.758057 -212.175064 172.503647 2.3479e-038
1711.048096 270.505219 173.908157 9.16141e-041
1727.782471 -154.490036 175.675278 1.89178e-038
1729.821777 336.178619 175.891342 9.15636e-041
1712.148071 -92.648026 174.023849 9.91787e-039
1736.398560 401.245605 176.586151 9.15384e-041
1698.329956 -32.159828 172.564285 1.40505e-038
1705.964111 457.863617 173.371368 9.15132e-041
1703.403564 -461.978485 179.121124 9.15384e-041
1721.547241 27.946198 181.102417 9.15006e-041
1695.065063 -396.430176 178.210968 3.30572e-039
1701.578247 -92.124672 178.922363 6.6118e-039
1684.284546 -332.033936 177.034210 1.65268e-039
1703.366699 147.765823 179.117920 1.23974e-038
1675.059204 -269.506104 176.027237 9.15006e-041
1710.934570 209.248764 179.944122 9.16141e-041
1673.440552 -209.250214 175.850616 8.26484e-039
1718.260864 271.756714 180.743988 9.16519e-041
1729.114746 -154.664352 181.928268 8.26161e-040
1725.269409 335.415375 181.509140 9.15636e-041
1691.651001 -91.601311 177.838669 1.80912e-038
1741.558716 402.595306 183.287415 9.15889e-041
1703.656250 -32.264553 179.149292 1.4877e-038
1716.846558 460.969452 180.589844 9.15006e-041
1702.743286 -461.978485 185.072784 9.15889e-041
1720.880005 27.946190 187.117386 9.1551e-041
1694.408081 -396.430176 184.133530 9.15006e-041
1696.949341 -91.915337 184.420319 9.15258e-041
1693.386230 -333.942017 184.018448 9.14768e-041
1702.706421 147.765808 185.069443 1.97443e-038
1678.335938 -270.131836 182.322418 9.15006e-041
1702.380981 208.273788 185.032837 9.15889e-041
1668.846680 -208.762726 181.253082 7.43832e-039
1717.594971 271.756714 186.747498 9.16141e-041
1720.525146 -153.967117 187.077148 1.15709e-038
1734.355225 337.323456 188.636414 9.16015e-041
1704.888184 -92.334023 185.314987 2.05708e-038
1729.264771 399.895905 188.062820 9.15889e-041
1706.970215 -32.334370 185.549713 1.64382e-038
1716.181152 460.969452 186.588409 9.16267e-041
1698.189941 -460.943268 190.872742 9.15889e-041
1724.129395 28.015989 193.893021 9.15006e-041
1701.438721 -398.229797 191.251022 9.1551e-041
1698.220093 -92.020012 190.876740 9.09136e-039
1673.173706 -330.125824 187.960785 9.14768e-041
1715.843994 148.985992 192.928665 2.34629e-038
1677.630615 -270.131866 188.479691 9.15006e-041
1717.439819 210.223709 193.114502 9.16141e-041
1664.201782 -208.275269 186.916519 7.43832e-039
1705.100342 269.879456 191.678162 9.15763e-041
1715.843994 -153.618500 192.928268 1.15709e-038
1733.626465 337.323456 194.998978 9.15763e-041
1702.187866 -92.229355 191.338623 1.23974e-038
1722.731079 398.546173 193.730728 9.15384e-041
1692.348877 -32.090042 190.193359 1.23974e-038
1723.135498 463.039978 193.777893 9.17024e-041
1689.851685 -458.872711 195.590561 9.15636e-041
1737.352173 28.260313 201.280457 9.14768e-041
1706.576538 -399.579529 197.593811 1.65268e-039
1699.537476 -92.124695 196.751144 9.91787e-039
1680.315186 -331.652344 194.448517 4.95876e-039
1697.367188 147.417175 196.491516 1.64382e-038
1682.857056 -271.070465 194.753052 9.15763e-041
1714.795532 209.979950 198.579025 9.16267e-041
1695.085571 -212.175095 196.217758 2.35077e-038
1702.470581 269.566589 197.102936 9.16393e-041
1703.302002 -152.572647 197.201935 1.07444e-038
1732.946899 337.323456 200.753235 9.15763e-041
1699.537476 -92.124695 196.751144 5.78528e-039
1735.600220 401.695465 201.071106 9.1488e-041
1691.685547 -32.090050 195.810760 1.07444e-038
1712.869385 460.451782 198.348663 9.16267e-041
1691.051392 -459.390350 201.731247 9.16267e-041
1722.721680 28.015974 205.637314 9.15006e-041
1711.654053 -400.929230 204.271927 3.30572e-039
1692.869019 -91.810684 201.955872 9.14768e-041
1685.447144 -332.797180 201.040314 1.65268e-039
1692.691650 147.068542 201.934311 6.6118e-039
1672.339722 -269.506134 199.424088 9.15006e-041
1723.918213 211.198624 205.785095 9.15763e-041
1686.484985 -211.200150 201.168472 8.26484e-039
1705.668701 270.192322 203.534744 9.16393e-041
1706.533447 -152.921265 203.640823 8.26484e-039
1720.520020 335.033752 205.366211 9.15763e-041
1702.780273 -92.334053 203.178070 9.09136e-039
1732.929077 401.245575 206.896515 9.15384e-041
1702.875122 -32.299488 203.189835 1.07444e-038
1704.472656 458.381226 203.387512 9.16519e-041
1697.978271 -461.460876 208.612152 9.16267e-041
1718.001221 27.946157 211.152908 9.15006e-041
1701.239746 -398.679718 209.025986 6.6118e-039
1705.998901 -92.543404 209.630112 4.13224e-039
1686.658081 -333.178802 207.176239 9.15006e-041
1701.834595 147.940094 209.102158 9.1488e-041
1671.608887 -269.506134 205.267181 9.15384e-041
1711.348999 209.736191 210.309235 9.15258e-041
1689.686523 -211.687637 207.560593 1.57035e-038
1710.802246 271.130920 210.239975 9.16141e-041
1713.693848 -153.618530 210.606232 7.43832e-039
1717.820435 334.652130 211.130371 9.16141e-041
1705.998901 -92.543404 209.630112 2.4792e-039
1734.104980 401.695435 213.196320 9.15636e-041
1706.098511 -32.369308 209.642838 1.23974e-038
1707.560791 459.416504 209.828995 9.16519e-041
1687.598511 -458.872742 213.590500 9.16141e-041
1725.121460 28.085768 218.491104 9.15006e-041
1708.165771 -400.479340 216.276367 6.6118e-039
1695.291016 -92.020050 214.595520 2.4792e-039
1689.755127 -333.942078 213.872284 4.95876e-039
1701.030884 147.940094 215.345383 9.15384e-041
1674.736938 -270.131897 211.911224 9.14768e-041
1706.604126 209.248718 216.073242 9.1488e-041
1673.141602 -209.737732 211.702957 1.57035e-038
1711.953125 271.443756 216.771835 9.16393e-041
1708.933350 -153.269897 216.376938 1.15709e-038
1728.689575 336.941803 218.957458 9.15636e-041
1709.154175 -92.752754 216.405838 9.15132e-041
1719.759766 398.546143 217.791443 9.15132e-041
1701.327026 -32.299507 215.383820 1.07444e-038
1716.332397 462.004669 217.343948 9.17024e-041
1694.476929 -460.943298 220.514114 9.16015e-041
1722.341675 28.050854 224.252472 9.14768e-041
1707.375854 -400.479340 222.244415 6.6118e-039
1694.507080 -92.020058 220.518631 9.09136e-039
1683.136108 -332.797211 218.993057 9.09136e-039
1700.244263 147.940079 221.288544 3.30572e-039
1679.835938 -271.070496 218.550476 9.15889e-041
1723.522095 211.442352 224.411057 9.91787e-039
1678.270264 -210.468964 218.340515 1.97443e-038
1707.245728 270.818024 222.227875 9.16267e-041
1712.092529 -153.618546 222.877426 1.15709e-038
1731.781860 337.705017 225.519165 9.15636e-041
1716.281860 -93.171448 223.439453 9.09136e-039
1722.827393 399.445923 224.318115 9.15384e-041
1696.576416 -32.229702 220.796295 9.09136e-039
1721.282715 463.557587 224.111023 9.16645e-041
1686.017090 -458.872742 225.380295 9.16141e-041
1721.523804 28.050846 230.269958 9.15889e-041
1706.565063 -400.479340 228.209671 6.6118e-039
1693.702393 -92.020065 226.438980 4.13224e-039
1676.502197 -331.652374 224.070328 1.23974e-038
1697.463135 147.765762 226.957138 1.4877e-038
1704.478149 -275.137787 227.922485 9.09136e-039
1734.502930 212.904770 232.057343 5.78528e-039
1675.506714 -210.225220 223.933426 4.95876e-039
1708.391968 271.130890 228.462128 9.16141e-041
1703.384399 -152.921295 227.772064 7.43832e-039
1738.739136 339.231506 232.640793 9.16393e-041
1717.445435 -93.276131 229.708237 1.23974e-038
1731.661865 401.695435 231.666397 9.1488e-041
1683.884766 -32.020279 225.087250 3.30572e-039
1712.810181 461.487030 229.070724 9.16771e-041
1689.021240 -459.908020 231.811356 9.16015e-041
1720.684937 28.050838 236.284561 9.14768e-041
1709.592651 -401.379181 234.717178 4.95876e-039
1700.787598 -92.438766 233.473862 9.14768e-041
1683.461060 -333.178833 231.026154 4.95876e-039
1682.826294 146.545563 230.937134 1.07444e-038
1691.911865 -273.260590 232.219910 9.09136e-039
1725.795410 211.929810 237.006668 1.15709e-038
1684.518188 -211.443939 231.175644 1.23974e-038
1705.603516 270.818024 234.154617 9.16267e-041
1702.554443 -152.921310 233.723343 7.43832e-039
1726.228149 336.941772 237.067932 9.16141e-041
1712.653320 -93.066795 235.149918 1.23974e-038
1738.536377 403.495026 238.806595 9.1488e-041
1687.024292 -32.090099 231.529846 1.65268e-039
1706.237061 459.934113 234.244339 9.17262e-041
1693.955811 -461.460938 238.247116 9.16141e-041
1713.931274 27.946117 241.136932 1.65268e-039
1701.066895 -399.579590 239.275711 1.65268e-039
1709.864014 -92.962128 240.548508 7.43832e-039
1686.548462 -333.942108 237.175919 9.15006e-041
1680.056030 146.371262 236.237534 3.30572e-039
1693.064087 -273.573486 238.118408 5.78528e-039
1711.224121 210.223633 240.745605 1.89178e-038
1683.718994 -211.443939 236.766846 1.23974e-038
1710.659424 271.756622 240.664032 9.15763e-041
1709.634155 -153.618576 240.515167 4.95876e-039
1721.523071 336.178528 242.235367 9.16141e-041
1701.957275 -92.543442 239.404907 4.95876e-039
1737.711670 403.495026 244.576904 9.15636e-041
1704.035767 -32.404251 239.705612 9.1488e-041
1709.251465 460.969360 240.460632 9.1715e-041
1693.089233 -461.460938 244.165436 9.16141e-041
1717.010742 28.015919 247.711273 9.15384e-041
1698.269043 -399.129669 244.933151 3.30572e-039
1697.135254 -92.334106 244.765549 5.78528e-039
1697.337891 -336.231812 244.795258 9.15636e-041
1694.963501 147.765732 244.444016 8.26161e-040
1707.830322 -276.076416 246.350327 1.72647e-038
1718.203247 211.198578 247.888260 1.3224e-038
1665.184814 -209.250290 240.030319 8.26161e-040
1707.830322 271.443726 246.351059 3.30572e-039
1712.701294 -153.967194 247.072372 2.4792e-039
1730.352661 338.086609 249.688980 9.16015e-041
1699.110962 -92.438782 245.058350 9.16141e-041
1719.473511 399.445892 248.076752 9.15132e-041
1709.098389 -32.508976 246.538559 9.15763e-041
1708.377075 460.969360 246.432327 9.17024e-041
1697.932007 -463.013855 250.950333 9.16015e-041
1727.973267 28.225336 255.510330 9.15763e-041
1691.598999 -397.779968 249.989273 1.65268e-039
1688.347412 -91.915428 249.496170 4.13224e-039
1690.625366 -335.086945 249.841599 1.65268e-039
1705.894287 148.811584 252.159592 5.78528e-039
1677.640259 -271.383392 247.870911 3.30572e-039
1723.190796 211.929779 254.784744 5.78528e-039
1668.237549 -209.737778 246.443924 3.30572e-039
1706.935425 271.443726 252.317764 3.30572e-039
1707.864136 -153.618591 252.458115 4.13224e-039
1725.563843 337.323395 255.145096 9.16015e-041
1700.195313 -92.543457 251.294327 2.4792e-039
1722.425903 400.345703 254.668930 9.15132e-041
1694.363403 -32.264645 250.409286 1.65268e-039
1722.761719 465.110474 254.719955 9.1715e-041
1687.476318 -460.425690 255.399734 9.16267e-041
1729.022339 28.260233 261.854248 9.14768e-041
1696.468506 -399.129669 256.796661 9.14768e-041
1691.388794 -92.124779 256.007996 9.15132e-041
1687.778442 -334.705353 255.446854 1.64382e-038
1693.166504 147.765717 256.284454 8.26161e-040
1676.740234 -271.383392 253.732193 9.15384e-041
1730.112549 212.904739 262.023834 9.15384e-041
1692.842896 -212.906387 256.233704 2.34948e-038
1702.115723 270.817963 257.674835 9.09136e-039
1703.010376 -153.269958 257.813232 7.43832e-039
1732.398071 338.849823 262.379059 9.16015e-041
1703.230347 -92.752808 257.847473 9.09136e-039
1731.130005 402.595184 262.182190 9.15636e-041
1693.454346 -32.264652 256.328949 1.65268e-039
1702.747925 459.934052 257.773285 9.17024e-041
1686.549927 -460.425720 261.295319 9.16141e-041
1724.123291 28.190416 267.267120 3.30572e-039
1693.612549 -398.679810 262.417786 9.14768e-041
1694.405273 -92.334129 262.544159 5.78528e-039
1692.668701 -335.850220 262.267853 2.34948e-038
1686.333862 147.242783 261.261810 3.30572e-039
1669.967041 -270.444824 258.660217 9.15889e-041
1723.281372 212.173508 267.133545 9.15636e-041
1668.387695 -209.981537 258.409302 1.15709e-038
1705.083130 271.443695 264.241577 3.30572e-039
1706.010864 -153.618607 264.388428 4.13224e-039
1723.691406 337.323364 267.198883 9.15763e-041
1704.267822 -92.857491 264.111511 1.4877e-038
1734.028931 403.494995 268.841827 9.15636e-041
1696.474609 -32.334473 262.873108 5.78528e-039
1699.905273 459.416412 263.418945 9.16393e-041
1695.137085 -463.013885 268.736938 9.16015e-041
1717.233887 28.085697 272.328308 9.15384e-041
1686.891113 -397.330109 267.397064 9.15258e-041
1705.282349 -92.962166 270.386017 7.43832e-039
1701.407471 -337.758301 269.756012 1.80912e-038
1687.353638 147.417084 267.472931 9.15636e-041
1688.527344 -273.573517 267.663086 9.14768e-041
1708.598022 210.467331 270.925232 9.16267e-041
1673.329102 -210.712769 265.193451 4.95876e-039
1711.924927 272.695190 271.465942 1.23974e-038
1705.052979 -153.618607 270.348663 2.4792e-039
1716.910156 336.178497 272.276123 9.16141e-041
1695.425293 -92.438812 268.784271 1.23974e-038
1733.055298 403.494995 274.899841 9.15636e-041
1705.391113 -32.509007 270.403778 1.57035e-038
1710.391846 462.522247 271.217072 9.16141e-041
1690.352661 -461.978607 274.026154 9.16141e-041
1722.166260 28.190401 279.310577 9.15889e-041
1689.767700 -398.229889 273.929108 1.65268e-039
1690.511597 -92.229469 274.053070 8.26161e-040
1700.430908 -337.758301 275.700165 6.6118e-039
1706.039795 149.160172 276.632385 5.78528e-039
1689.506836 -273.886383 273.885925 3.30572e-039
1713.492188 211.198532 277.870178 9.16141e-041
1676.285156 -211.200241 271.690094 1.57035e-038
1718.737061 273.946655 278.741394 2.34916e-038
1704.074341 -153.618622 276.305542 1.15709e-038
1725.608276 338.086578 279.882690 9.15763e-041
1690.511597 -92.229469 274.053070 1.3224e-038
1720.526123 400.795593 279.038696 9.15636e-041
1714.275513 -32.683540 278.000000 1.40505e-038
1709.410156 462.522247 277.192535 9.16141e-041
1689.361206 -461.978607 279.931671 9.16141e-041
1719.184692 28.155489 284.992615 9.1551e-041
1694.540405 -399.579651 280.810547 9.14768e-041
1681.643677 -91.810791 278.622711 2.4792e-039
1685.884399 -335.086975 279.341949 9.14768e-041
1699.146240 148.637238 281.592773 9.1488e-041
1704.096313 -276.389374 282.432098 9.09136e-039
1708.572998 210.711060 283.192322 9.15889e-041
1679.216187 -211.687729 278.210663 1.57035e-038
1704.096313 271.756561 282.432831 1.72647e-038
1707.003540 -153.967239 282.925507 1.3224e-038
1730.402954 339.231415 286.896484 9.15636e-041
1697.396606 -92.648170 281.295563 9.91787e-039
1725.280884 402.145264 286.027496 9.15384e-041
1703.412598 -32.509022 282.316406 1.97443e-038
1712.216797 463.557495 283.810913 9.16519e-041
1686.445679 -461.460999 285.503906 9.16141e-041
1722.095459 28.225288 291.681488 9.15006e-041
1693.525269 -399.579651 286.730652 9.1551e-041
1684.572144 -92.020142 285.179749 8.26161e-040
1686.808960 -335.468628 285.567017 1.57035e-038
1686.349487 147.591370 285.488037 3.30572e-039
1697.236328 -275.450745 287.373810 9.14768e-041
1721.241089 212.417206 291.533691 9.16519e-041
1684.078125 -212.418945 285.093994 1.23974e-038
1699.182617 271.130798 287.711761 9.15006e-041
1702.054688 -153.618637 288.208801 4.95876e-039
1729.366455 339.231415 292.941742 7.43832e-039
1706.219482 -93.171532 288.930542 7.43832e-039
1722.327271 401.695343 291.722168 9.16267e-041
1696.481079 -32.404316 287.243286 9.09136e-039
1703.577148 461.486938 288.473450 9.16141e-041
1683.511963 -460.943390 291.059265 9.16141e-041
1707.258301 27.980951 295.259796 9.15889e-041
1696.327515 -400.479431 293.325958 9.15006e-041
1693.375488 -92.543510 292.804260 9.1488e-041
1681.910767 -334.705414 290.776245 6.6118e-039
1683.356201 147.417053 291.032532 5.78528e-039
1682.581909 -273.260681 290.895020 9.16267e-041
1720.188354 212.417206 297.546936 9.16645e-041
1677.183838 -211.687744 289.940369 3.30572e-039
1705.924194 272.382294 295.024170 9.15132e-041
1701.013672 -153.618637 294.155090 4.95876e-039
1732.175171 339.994659 299.667175 1.07444e-038
1707.142700 -93.276222 295.239197 9.91787e-039
1732.787598 404.394775 299.775574 9.15636e-041
1705.289185 -32.578850 294.911469 9.1551e-041
1706.339844 462.522217 295.097931 9.15763e-041
1686.263428 -461.978638 297.626984 9.16015e-041
1719.968018 28.225273 303.710205 1.65268e-039
1687.597656 -398.679840 297.867859 9.15006e-041
1700.180542 -92.962204 300.139069 4.13224e-039
1686.656982 -335.850250 297.698181 3.30572e-039
1688.187622 147.939972 297.975067 9.1488e-041
1685.419678 -273.886414 297.474945 9.16015e-041
1705.439941 210.711029 301.088593 9.16771e-041
1674.183350 -211.444016 295.447266 9.15006e-041
1708.747314 273.008026 301.685577 9.15889e-041
1696.030518 -153.270020 299.390015 1.89178e-038
1725.297974 338.849762 304.672516 1.3224e-038
1690.353027 -92.438850 298.365509 1.4877e-038
1731.706055 404.394745 305.829071 9.16267e-041
1696.353149 -32.439236 299.448425 9.15636e-041
1701.472534 461.486938 300.372955 9.16141e-041
1700.389038 -466.119781 306.315918 9.16015e-041
1722.806152 28.295074 310.442963 5.78528e-039
1686.522949 -398.679871 303.763611 9.14768e-041
1683.383911 -92.124840 303.186188 9.1488e-041
1685.583008 -335.850281 303.590637 9.15384e-041
1698.869385 148.985840 306.037018 3.30572e-039
1705.716553 -277.328003 307.296783 5.78528e-039
1710.210815 211.442245 308.124725 9.16267e-041
1659.451294 -209.737854 298.780640 9.14768e-041
1707.659302 273.007996 307.655151 9.1488e-041
1700.828857 -153.792953 306.397278 1.64382e-038
1735.784180 341.139465 312.832306 1.15709e-038
1689.276611 -92.438858 304.270874 1.4877e-038
1715.271118 400.795532 309.056458 9.15889e-041
1703.139526 -32.578865 306.822784 9.15763e-041
1706.088867 463.039825 307.366302 9.15384e-041
1695.487427 -465.084503 311.543549 9.16015e-041
1725.618164 28.364874 317.199280 1.65268e-039
1693.088989 -400.479462 311.093475 9.1551e-041
1682.290649 -92.124847 309.067200 9.1488e-041
1670.981445 -333.178955 306.944305 9.14768e-041
1701.682617 149.334442 312.707123 3.30572e-039
1712.374756 -278.579468 314.713287 1.97443e-038
1713.002319 211.929703 314.831726 9.16519e-041
1670.079712 -211.200287 306.775238 3.30572e-039
1692.959961 270.817902 311.070160 3.30572e-039
1717.348145 -155.361771 315.646881 9.1488e-041
1730.797974 340.376221 318.171875 1.57035e-038
1694.068604 -92.752876 311.277740 9.09136e-039
1721.818481 402.595123 316.486633 9.15636e-041
1684.345215 -32.264725 309.452881 9.14768e-041
1714.474487 465.628021 315.108337 9.16645e-041
1675.446655 -459.908142 313.544159 9.16015e-041
1726.497559 28.399771 323.301697 9.14768e-041
1695.852905 -401.379272 317.444305 9.15006e-041
1685.156738 -92.334198 315.400452 4.13224e-039
1673.787720 -333.942200 313.227325 4.95876e-039
1686.914185 148.114258 315.736664 5.78528e-039
1703.537354 -277.328003 318.913147 1.23974e-038
1715.825195 212.417160 321.262238 9.16645e-041
1665.130371 -210.712830 311.572845 3.30572e-039
1697.716553 271.756531 317.801392 4.95876e-039
1704.526855 -154.315903 319.102417 2.4792e-039
1737.423340 341.902710 325.390259 1.3224e-038
1706.735962 -93.485596 319.524689 1.23974e-038
1722.650269 403.045013 322.566895 9.15384e-041
1679.358154 -32.194923 314.292328 2.4792e-039
1702.011719 462.522186 318.622528 9.16393e-041
1681.902222 -461.978668 320.874512 9.16015e-041
1721.408325 28.329956 328.568604 9.16519e-041
1690.884277 -400.479462 322.623779 9.14768e-041
1687.941772 -92.543549 322.051147 9.1488e-041
1672.659668 -333.942200 319.074768 9.14768e-041
1685.777222 148.114243 321.629944 9.15763e-041
1677.182739 -273.260712 319.955688 9.15384e-041
1714.668701 212.417160 327.256378 9.16393e-041
1671.802002 -211.687775 318.907898 3.30572e-039
1700.450195 272.382263 324.487549 9.15132e-041
1707.289307 -154.664551 325.818817 4.95876e-039
1730.471191 340.757813 330.333954 6.6118e-039
1705.585693 -93.485603 325.487122 1.3224e-038
1727.227539 404.394714 329.702393 1.65268e-039
1686.077515 -32.334553 321.688171 2.4792e-039
1708.449463 464.592743 326.045563 9.16645e-041
1688.385620 -464.049255 327.958801 9.16141e-041
1735.978271 28.609180 337.391602 1.23974e-038
1685.958618 -399.579712 327.477905 9.15006e-041
1690.759521 -92.752899 328.429749 9.15132e-041
1683.123779 -336.231934 326.916138 9.14768e-041
1692.495483 148.811493 328.774139 8.26161e-040
1668.338501 -272.009216 323.985992 9.16645e-041
1701.867432 210.954742 330.631592 9.16519e-041
1674.606323 -212.175262 325.228302 4.95876e-039
1703.216919 273.007965 330.899109 9.1551e-041
1702.267334 -154.315918 330.710358 2.4792e-039
1731.268677 341.139435 336.458679 5.78528e-039
1688.800293 -92.648232 328.041473 1.23974e-038
1733.747681 406.194305 336.950043 1.4877e-038
1696.747437 -32.543991 329.616577 9.1488e-041
1711.125488 465.627991 332.466736 9.16141e-041
1687.205933 -464.049255 333.857117 9.16141e-041
1742.606079 28.748791 345.038391 2.34629e-038
1679.049927 -398.229980 332.211212 9.15258e-041
1685.662598 -92.543564 333.546143 9.1488e-041
1681.947754 -336.231934 332.796112 9.15384e-041
1687.406982 148.462860 333.898529 9.15636e-041
1696.217773 -276.702301 335.676117 9.14768e-041
1700.678345 210.954727 336.576965 9.16645e-041
1671.490356 -211.931534 330.685822 1.23974e-038
1698.154175 272.382233 336.067627 9.15132e-041
1701.078003 -154.315933 336.657135 4.13224e-039
1728.134644 340.757813 342.118256 9.14768e-041
1693.493774 -92.962257 335.126587 2.4792e-039
1728.715820 405.294495 342.235626 1.40505e-038
1695.561890 -32.543999 335.544067 9.15132e-041
1717.504639 467.698517 339.973114 9.16393e-041
1689.790283 -465.084534 340.528870 9.16141e-041
1723.737427 28.434643 347.503967 7.43832e-039
1691.217651 -401.379303 340.822205 3.30572e-039
1686.419800 -92.648247 339.836884 2.4792e-039
1678.828125 -335.850311 338.276825 1.65268e-039
1690.109741 148.811478 340.595337 8.26161e-040
1700.816040 -277.640900 342.794342 1.4877e-038
1699.468506 210.954727 342.518127 9.16393e-041
1672.245850 -212.175278 336.924652 8.26484e-039
1700.816040 273.007965 342.795074 9.15258e-041
1703.771118 -154.664566 343.401642 4.13224e-039
1730.751587 341.521057 348.945435 9.15006e-041
1700.114624 -93.380951 342.650482 5.78528e-039
1725.577271 404.844604 347.882477 1.23974e-038
1682.603027 -32.334576 339.052795 2.4792e-039
1714.390625 467.180908 345.584229 9.16645e-041
1688.505005 -465.084534 346.727051 9.16141e-041
1718.511841 28.364828 353.007324 9.16645e-041
1689.931274 -401.379303 347.025604 9.15006e-041
1691.001831 -92.962273 347.250061 7.43832e-039
1675.629639 -335.468689 344.032745 9.14768e-041
1682.973877 148.288528 345.570343 9.15132e-041
1674.387085 -273.573608 343.772766 9.1551e-041
1713.719849 212.904617 352.004730 9.16393e-041
1676.802856 -212.906509 344.278442 9.15889e-041
1687.921509 271.130737 346.605896 9.15132e-041
1698.574951 -154.315948 348.834839 4.13224e-039
1731.356812 341.902649 355.695862 2.4792e-039
1706.641113 -93.799652 350.522949 7.43832e-039
1731.894531 406.644165 355.808472 4.13224e-039
1689.152344 -32.474201 346.863098 9.15384e-041
1705.523071 465.110321 350.289703 9.16141e-041
1679.701904 -463.014008 351.016449 9.15889e-041
1717.244507 28.364819 359.010651 9.16898e-041
1696.309082 -403.178955 354.552551 9.15006e-041
1705.382568 -93.799660 356.484863 1.72647e-038
1682.074707 -336.995209 351.521820 9.15384e-041
1677.835327 147.939911 350.619843 9.1488e-041
1665.423950 -272.322113 347.976654 9.15889e-041
1720.222412 213.879547 359.644958 9.16519e-041
1679.449463 -213.393997 350.963043 9.15384e-041
1690.540894 271.756470 353.325256 9.1551e-041
1693.425049 -153.967331 353.938751 8.26161e-040
1720.479004 339.994568 359.699768 9.14768e-041
1709.289551 -94.009003 357.316742 9.09136e-039
1730.617310 406.644165 361.858521 1.23974e-038
1695.730103 -32.613831 354.429749 9.16267e-041
1694.817871 462.522125 354.236145 8.26161e-040
1685.994141 -465.084564 358.519928 9.16141e-041
1721.819458 28.469522 366.279327 9.16267e-041
1681.704468 -400.029633 357.591003 9.1551e-041
1702.151245 -93.694992 362.019592 2.13973e-038
1676.975342 -336.231964 356.566895 9.15006e-041
1692.154663 149.334381 359.854950 9.1488e-041
1662.244019 -272.009277 353.376587 9.15132e-041
1707.291260 212.417114 363.133179 9.16645e-041
1687.890137 -214.612701 358.930878 1.57035e-038
1696.995117 273.007935 360.903412 9.15258e-041
1696.049072 -154.315964 360.697968 2.4792e-039
1713.432007 338.849701 364.463257 9.1551e-041
1692.391235 -93.171631 359.905853 7.43832e-039
1735.032837 407.993896 369.141479 8.26484e-039
1694.458008 -32.613842 360.353546 9.14768e-041
1712.427246 467.698486 364.245819 7.43832e-039
1688.481079 -466.119843 365.240723 9.16141e-041
1722.458740 28.504419 372.724213 2.4792e-039
1680.421387 -400.029633 363.465820 9.1551e-041
1693.050537 -93.276314 366.247528 1.4877e-038
1687.199707 -338.521667 364.958679 9.15384e-041
1685.026245 148.811447 364.480713 8.26161e-040
1672.550659 -273.886505 361.732605 9.15132e-041
1702.111450 211.929626 368.243378 9.16519e-041
1690.479614 -215.100174 365.681183 2.3479e-038
1695.700439 273.007935 366.831604 9.15889e-041
1698.646606 -154.664612 367.479858 8.26161e-040
1721.711304 340.757751 372.560028 9.16393e-041
1691.099976 -93.171638 365.817963 7.43832e-039
1720.387207 404.844574 372.268524 4.13224e-039
1693.165283 -32.613850 366.272888 9.15384e-041
1713.007446 468.216125 370.643341 3.30572e-039
1687.171265 -466.119843 371.139160 9.16141e-041
1715.268433 28.399700 377.430511 5.78528e-039
1684.822754 -401.379333 370.613434 9.15258e-041
1681.992188 -92.752960 369.980072 9.15132e-041
1674.395996 -336.231964 368.279022 9.15006e-041
1695.384766 149.857300 372.978882 5.78528e-039
1665.470215 -272.947906 366.280701 9.15763e-041
1712.413818 213.392059 376.791626 9.16645e-041
1662.048340 -211.687836 365.514679 1.89178e-038
1686.674438 271.756470 371.028870 9.15258e-041
1701.217529 -155.013229 374.284363 9.15636e-041
1722.291626 341.139374 379.003357 9.16519e-041
1695.635254 -93.485664 373.034637 9.91787e-039
1724.757690 406.194244 379.555573 6.6118e-039
1687.949097 -32.544044 371.313873 9.1488e-041
1706.023071 466.663208 375.361115 9.1488e-041
1678.306152 -464.049316 375.318359 9.16015e-041
1715.865723 28.434595 383.866058 9.16015e-041
1687.294556 -402.279175 377.363861 9.15258e-041
1692.350708 -93.380997 378.514832 9.15132e-041
1676.904297 -336.995239 374.999512 9.15636e-041
1686.276978 149.160049 377.133026 5.78528e-039
1671.861450 -274.199402 373.852051 9.15763e-041
1707.192383 212.904572 381.892609 9.16393e-041
1666.544556 -212.419067 372.642242 1.3224e-038
1689.196655 272.382172 377.797577 9.1488e-041
1695.990601 -154.664627 379.343018 8.26161e-040
1720.933594 341.139374 385.019714 9.16645e-041
1704.035522 -94.009041 381.173828 4.95876e-039
1715.796997 404.394653 383.850952 9.1488e-041
1684.668213 -32.509148 376.766693 9.15763e-041
1710.328979 468.216095 382.606689 9.15006e-041
1680.793457 -465.084595 381.757965 9.16141e-041
1706.766602 28.294971 387.759705 9.15889e-041
1693.605469 -404.078766 384.718292 9.15258e-041
1700.792725 -93.904366 386.379303 1.07444e-038
1675.628174 -336.995239 380.564697 9.15384e-041
1679.169922 148.637100 381.383698 3.30572e-039
1660.965820 -272.635071 377.177032 9.15889e-041
1713.629761 213.879517 389.345703 9.16645e-041
1676.881226 -213.881516 380.854370 9.15006e-041
1691.760620 273.007904 384.292908 9.15132e-041
1694.699951 -154.664627 384.971466 8.26161e-040
1713.885376 339.994537 389.404938 9.16141e-041
1706.630737 -94.218391 387.728180 7.43832e-039
1722.086182 406.194244 391.299835 9.1488e-041
1685.334595 -32.544060 382.807770 9.15384e-041
1703.380615 466.663208 386.977966 9.1488e-041
1686.948975 -467.155151 389.395325 9.16015e-041
1701.484497 28.225155 392.807892 9.16015e-041
1678.947388 -400.929474 387.517212 9.15006e-041
1691.631470 -93.485687 390.494934 1.64382e-038
1678.087524 -337.758453 387.315460 9.15636e-041
1687.502197 149.508667 389.526031 8.26161e-040
1657.691406 -272.322174 382.527954 9.15384e-041
1704.505493 212.904556 393.517242 9.16267e-041
1681.314697 -214.612732 388.073120 3.30572e-039
1698.076660 274.259369 392.008331 9.15258e-041
1693.321289 -154.664642 390.891479 4.95876e-039
1704.845825 338.468048 393.597351 9.16393e-041
1693.575928 -93.590363 390.951355 5.78528e-039
1722.582397 406.644104 397.760742 2.4792e-039
1687.857056 -32.613880 389.609070 9.15132e-041
1709.517822 468.733734 394.694153 5.78528e-039
1681.726440 -466.119873 394.686066 9.16141e-041
1703.897705 28.294956 399.976807 9.16267e-041
1686.967651 -403.179016 395.936737 9.15258e-041
1678.506714 -92.857666 393.918335 2.4792e-039
1688.088745 -340.048187 396.204315 9.15763e-041
1701.541260 150.903137 399.414764 9.91787e-039
1658.173828 -272.635071 389.066650 9.15763e-041
1703.025879 212.904556 399.769043 9.16267e-041
1675.993408 -214.125275 393.318512 1.57035e-038
1702.366943 275.197937 399.611908 1.65268e-039
1703.479248 -155.710510 399.876740 1.65268e-039
1714.823853 340.757721 402.584229 9.16393e-041
1692.105835 -93.590370 397.163086 2.4792e-039
1713.505005 404.844513 402.269653 9.15258e-041
1698.062378 -32.823318 398.584442 9.15132e-041
1717.429321 471.321899 403.206085 9.14768e-041
1687.895386 -468.190460 402.085480 9.16015e-041
1706.425659 28.364756 406.572449 9.16015e-041
1689.410034 -404.078796 402.452271 9.16141e-041
1671.344360 -92.543648 398.078796 9.1551e-041
1671.477295 -336.995270 398.110657 9.15006e-041
1713.739136 152.123306 408.343292 1.72647e-038
1664.530884 -273.886566 396.428955 9.16141e-041
1709.384888 213.879486 407.289154 9.16267e-041
1655.363037 -211.687881 394.209442 8.26161e-040
1687.569702 273.007874 402.007599 9.15132e-041
1709.866333 -156.407761 407.405212 9.16771e-041
1721.088623 342.284210 410.122894 9.16393e-041
1694.638428 -93.799721 403.718506 4.95876e-039
1715.926392 405.744324 408.873169 9.15258e-041
1688.933838 -32.683704 402.337463 9.14768e-041
1706.671509 468.733704 406.632538 9.15636e-041
1675.272827 -465.084625 404.922089 9.16015e-041
1712.812622 28.504364 414.143311 9.16267e-041
1688.042847 -404.078796 408.058777 9.15763e-041
1683.568970 -93.276367 406.960297 9.15763e-041
1673.937744 -337.758484 404.594299 9.15636e-041
1679.459351 149.160004 405.951202 1.40505e-038
1693.877441 -278.892456 409.492035 9.14768e-041
1708.001465 213.879471 412.961853 9.16645e-041
1663.662231 -212.906586 402.070618 9.1551e-041
1690.040771 273.633606 408.550385 4.95876e-039
1694.938354 -155.187592 409.752777 9.16141e-041
1713.975952 341.139343 414.429504 9.16519e-041
1701.025391 -94.218422 411.247986 5.78528e-039
1718.322632 406.644104 415.497223 9.15132e-041
1677.857056 -32.509186 405.557434 9.15763e-041
1707.166382 469.251343 412.757080 9.16141e-041
1670.075684 -464.049347 409.839478 9.16015e-041
1703.570801 28.364740 418.191315 9.16267e-041
1690.365356 -404.978607 414.898254 9.16015e-041
1691.803223 -93.799736 415.257202 9.1488e-041
1676.300537 -338.521729 411.391632 9.15636e-041
1681.873901 149.508621 412.781921 1.40505e-038
1671.329468 -275.450897 410.152313 9.16015e-041
1706.525024 213.879471 418.928131 9.16267e-041
1662.224121 -212.906586 407.882202 9.15006e-041
1688.579712 273.633606 414.454010 7.43832e-039
1701.206055 -155.884842 417.601471 9.15006e-041
1714.399292 341.520935 420.891571 9.16141e-041
1707.306641 -94.637115 419.122620 4.95876e-039
1722.509888 407.993805 422.913849 9.15636e-041
1682.227539 -32.613911 412.869812 9.15384e-041
1700.067261 467.698425 417.318359 9.17024e-041
1679.847290 -467.155212 418.516754 9.16141e-041
1702.076050 28.364733 424.142120 9.16015e-041
1681.325317 -403.179047 418.890869 9.16015e-041
1694.191284 -94.009094 422.146820 4.13224e-039
1682.442749 -340.048218 419.173676 9.14768e-041
1690.055786 150.380173 421.100708 8.26484e-039
1669.862915 -275.450897 415.990601 9.16267e-041
1703.103271 213.635727 424.402252 9.16771e-041
1662.690063 -213.150345 414.175659 9.14768e-041
1696.673218 275.197906 422.775330 3.30572e-039
1697.781860 -155.710541 423.055267 4.95876e-039
1709.088501 340.757690 425.916962 9.16141e-041
1682.573853 -93.381050 419.207184 8.26161e-040
1719.109253 407.543884 428.452667 9.16015e-041
1688.505859 -32.753540 420.708282 9.15132e-041
1689.211426 465.110229 420.887451 9.16519e-041
1683.889526 -468.708130 426.120270 9.16898e-041
1700.484253 28.364725 430.384766 9.15889e-041
1677.865479 -402.729126 424.572540 9.15006e-041
1682.934692 -93.485733 425.875427 8.26161e-040
1684.672241 -340.811462 426.321533 9.15006e-041
1688.475220 150.380157 427.299347 2.4792e-039
1689.346802 -278.892487 427.522705 5.78528e-039
1707.278442 214.366943 432.130707 9.16519e-041
1659.212402 -212.906601 419.780029 9.1551e-041
1691.260010 274.572174 428.015015 1.65268e-039
1707.772339 -156.756424 432.257111 7.43832e-039
1711.293213 341.520935 433.162445 9.16141e-041
1688.738037 -93.799759 427.366516 8.26161e-040
1709.951904 405.744293 432.817902 9.15384e-041
1698.547485 -32.962982 429.887085 9.15636e-041
1706.342407 470.286591 431.890564 9.16393e-041
1686.029175 -469.743408 433.271484 9.16267e-041
1704.674438 28.469427 438.135773 9.16771e-041
1685.700439 -404.978638 433.185791 9.15763e-041
1681.336670 -93.485741 432.047913 2.4792e-039
1671.674438 -338.521759 429.527191 9.15636e-041
1710.006470 152.471878 439.526825 1.72647e-038
1678.185547 -277.328156 431.225708 9.15132e-041
1701.815674 213.879440 437.390289 9.16393e-041
1649.953613 -211.931656 423.861420 9.15384e-041
1687.742676 274.259308 433.719421 9.1488e-041
1706.150757 -156.756439 438.520599 9.15384e-041
1711.567871 341.902557 439.934387 9.15763e-041
1694.864868 -94.218452 435.576752 5.78528e-039
1715.870728 407.543884 441.056885 9.16015e-041
1683.390015 -32.718651 432.583618 9.15636e-041
1702.852905 469.768951 437.661224 9.16898e-041
1677.088989 -467.672852 436.891357 9.15258e-041
1732.187744 28.992983 451.459900 9.15006e-041
1684.231323 -404.978638 438.779816 9.15763e-041
1681.802246 -93.590424 438.138000 9.1488e-041
1666.421509 -337.758514 434.071045 9.15636e-041
1681.549438 150.031525 438.071472 1.4877e-038
1680.542480 -277.953888 437.804688 9.16015e-041
1702.251587 214.123184 443.545166 9.16771e-041
1663.868774 -213.881577 433.396301 9.15006e-041
1686.271729 274.259308 439.320221 9.15132e-041
1700.811401 -156.407806 443.163849 9.16771e-041
1715.770386 343.047363 447.119629 9.16141e-041
1697.249512 -94.427803 442.222198 5.78528e-039
1714.375366 407.543854 446.750916 9.16015e-041
1676.123047 -32.613941 436.636536 9.14768e-041
1699.501099 469.251282 442.818298 9.1715e-041
1673.741699 -467.155243 441.956818 3.30572e-039
1715.205322 28.713741 453.067535 9.15006e-041
1692.155396 -407.228180 446.890808 9.1551e-041
1680.316772 -93.590431 443.719086 9.1488e-041
1672.535034 -339.285034 441.633636 9.15636e-041
1676.215088 149.682892 442.620392 8.26484e-039
1675.241943 -277.328186 442.359070 9.16015e-041
1706.500488 214.854385 450.735321 9.16267e-041
1666.233887 -214.369064 439.945465 9.15384e-041
1690.506470 275.197876 446.449890 1.65268e-039
1701.233643 -156.582138 449.323608 9.16519e-041
1712.358521 342.665741 452.305176 9.15763e-041
1707.325562 -95.055847 450.956055 8.26161e-040
1718.508179 408.893555 453.953033 9.15889e-041
1690.095093 -32.893192 446.339233 9.16015e-041
1692.401978 467.698364 446.958008 9.16519e-041
1683.349731 -470.261078 450.842377 1.65268e-039
1719.378052 28.818447 460.631622 9.15006e-041
1681.157715 -404.978668 450.246887 9.15258e-041
1690.297363 -94.218475 452.730469 9.15132e-041
1674.747803 -340.048248 448.505432 9.15636e-041
1666.944458 148.985657 446.386017 9.15384e-041
1666.037964 -276.076691 446.139130 9.16015e-041
1699.145142 214.123169 455.134735 9.1488e-041
1664.663452 -214.369064 445.765808 9.15889e-041
1698.444580 276.762238 454.944489 9.15132e-041
1695.784790 -156.233521 454.221283 9.15384e-041
1701.271851 340.757660 455.712738 9.16141e-041
1692.224731 -94.323143 453.254120 9.91787e-039
1713.127319 407.993774 458.933868 9.15889e-041
1688.502197 -32.893200 452.242828 9.16015e-041
1694.535400 468.733643 453.882629 9.16393e-041
1685.466187 -471.296356 457.748413 9.15384e-041
1721.590820 28.888247 467.699371 9.15889e-041
1670.157349 -402.729156 453.531769 9.14768e-041
1682.905518 -93.904465 457.043579 2.4792e-039
1676.932983 -340.811493 455.398132 9.15763e-041
1692.243530 151.425980 459.615997 9.16141e-041
1672.063721 -277.328186 454.057007 9.16393e-041
1707.090576 215.341843 463.705597 3.30572e-039
1645.848389 -212.175415 446.836243 9.16015e-041
1693.012695 276.136505 459.828033 8.26161e-040
1694.164429 -156.233536 460.144653 9.15006e-041
1711.002686 343.047333 464.783356 9.15384e-041
1698.309937 -94.741844 461.286621 9.91787e-039
1711.490356 407.993744 464.917786 9.15889e-041
1688.816528 -32.928116 458.671814 9.16267e-041
1694.778687 469.251282 460.314697 9.17024e-041
1687.554810 -472.331635 464.674774 9.1551e-041
1731.479370 29.097662 476.939270 9.15006e-041
1679.801270 -405.428589 462.509979 9.15006e-041
1675.504272 -93.590454 461.310669 9.1488e-041
1671.526611 -340.048248 460.199799 9.15384e-041
1686.766235 151.077362 464.455414 9.15132e-041
1678.054443 -278.579651 462.022461 9.15132e-041
1716.908813 216.804260 472.871399 9.15258e-041
1661.461792 -214.369080 457.389801 9.1551e-041
1683.762329 274.885010 463.616852 9.15132e-041
1700.199219 -156.930771 468.205536 9.16141e-041
1716.909058 344.573822 472.871613 9.15132e-041
1694.741089 -94.637177 466.681671 9.09136e-039
1709.832520 407.993744 470.895905 9.15889e-041
1681.402466 -32.823406 462.957581 9.15132e-041
1694.997559 469.768890 466.754059 9.15763e-041
1682.180298 -471.296387 469.517365 9.16015e-041
1727.855225 29.062752 482.442657 9.14768e-041
1680.027100 -405.878510 468.908142 9.15258e-041
1681.546387 -94.009155 469.338470 9.15132e-041
1673.663574 -340.811523 467.107574 9.16267e-041
1685.110229 151.077347 470.347260 3.30572e-039
1680.208374 -279.205414 468.959625 9.16015e-041
1719.043335 217.291733 479.949402 9.15384e-041
1657.920288 -214.125366 462.652863 9.16015e-041
1682.109131 274.884979 469.498199 9.16141e-041
1687.027344 -155.884918 470.889313 9.15763e-041
1715.223389 344.573822 478.868622 9.15132e-041
1704.608032 -95.265221 475.864197 4.95876e-039
1710.028931 408.443634 477.398834 9.16015e-041
1679.751709 -32.823414 468.830719 9.1488e-041
1678.462524 465.627808 468.466583 9.16015e-041
1680.590698 -471.296387 475.099518 9.16267e-041
1708.921631 28.748608 483.218506 9.16645e-041
1685.932861 -407.678101 476.630402 9.16393e-041
1687.637329 -94.427849 477.119263 4.13224e-039
1675.856689 -341.574768 473.743103 9.15763e-041
1675.856567 150.380096 473.743774 9.1488e-041
1669.125854 -277.641083 471.814453 9.15636e-041
1721.235474 217.779205 486.747406 8.26161e-040
1669.711670 -215.831543 471.982422 9.15384e-041
1695.711182 277.387939 479.433350 9.15889e-041
1693.094360 -156.582169 478.682892 9.15006e-041
1707.940674 343.428955 482.937866 9.15763e-041
1712.597168 -95.788589 484.271606 1.23974e-038
1712.159668 409.343445 484.146912 9.16393e-041
1685.853638 -32.963043 476.608246 9.15636e-041
1691.733276 469.768890 478.293732 9.16393e-041
1678.897461 -471.296387 480.969727 9.16645e-041
1707.199829 28.748600 489.187592 9.16645e-041
1680.491333 -406.778320 481.432556 9.16898e-041
1682.100952 -94.218513 481.900299 9.15132e-041
1677.938965 -342.337982 480.691620 9.15384e-041
1676.081543 150.554413 480.152985 9.15636e-041
1669.341187 -277.953949 478.195465 9.16015e-041
1700.437622 215.341812 487.224518 9.1488e-041
1664.216675 -215.344070 476.707703 9.15384e-041
1697.796875 278.013672 486.457886 4.95876e-039
1693.301880 -156.756500 485.152252 9.15384e-041
1708.105347 343.810547 489.450897 9.15636e-041
1691.691162 -94.741882 484.684692 1.80912e-038
1708.563232 408.893494 489.583923 9.16645e-041
1684.155151 -32.963051 482.496826 9.15636e-041
1697.449829 471.839447 486.357391 9.16141e-041
1677.183716 -471.296387 486.834015 9.16645e-041
1713.131104 28.888206 497.407654 9.16645e-041
1699.341064 -411.727264 493.351074 9.14768e-041
1676.551758 -94.009178 486.648621 9.15384e-041
1678.109741 -342.719604 487.106506 9.16771e-041
1683.927856 151.425949 488.818420 9.15132e-041
1671.427490 -278.579681 485.141205 9.16267e-041
1698.702026 215.341812 493.163940 9.15006e-041
1662.517944 -215.344086 482.520752 9.1551e-041
1705.539429 279.578003 495.175079 1.07444e-038
1693.484985 -156.930801 491.628998 9.15889e-041
1710.128784 344.573792 496.525024 9.15384e-041
1695.712769 -95.055901 492.284332 2.05708e-038
1706.819336 408.893494 495.551697 9.16645e-041
1688.191406 -33.067776 490.072205 9.16267e-041
1693.863892 471.321777 491.741302 9.15636e-041
1682.855225 -473.366943 494.898590 9.16771e-041
1722.858521 29.097624 506.817047 9.15006e-041
1693.848755 -410.827454 498.173828 3.30572e-039
1678.646484 -94.218529 493.645172 9.1551e-041
1670.729980 -341.574799 491.286377 9.16015e-041
1693.643433 152.471802 498.113403 9.15384e-041
1673.485596 -279.205444 492.107391 9.16393e-041
1708.360352 216.804230 502.498016 9.16141e-041
1653.189087 -214.369125 486.060730 9.15384e-041
1688.630737 277.075043 496.620178 1.65268e-039
1701.281250 -157.802383 500.388458 9.1488e-041
1708.360596 344.573792 502.498230 9.15384e-041
1705.444092 -95.683937 501.628754 9.09136e-039
1706.922119 409.343414 502.069763 9.16771e-041
1688.362305 -33.102688 496.539825 9.15889e-041
1693.963867 471.839417 498.209320 9.16393e-041
1669.995972 -470.261139 497.428345 9.16645e-041
1722.968750 29.132519 513.412292 9.16267e-041
1699.537598 -412.627075 506.341888 1.15709e-038
1680.712769 -94.427879 500.662354 9.1551e-041
1661.462158 -340.048309 494.853607 9.15636e-041
1680.425049 151.425934 500.575897 9.15384e-041
1675.515381 -279.831177 499.093933 9.16393e-041
1702.770386 216.316742 507.318146 9.16645e-041
1662.860596 -215.831573 495.275757 9.15889e-041
1698.209351 278.952240 505.942047 9.09136e-039
1691.869751 -157.105133 504.028625 9.15636e-041
1714.089844 346.100220 510.733673 9.15132e-041
1707.482422 -95.893303 508.739471 9.15636e-041
1708.865967 410.243225 509.157562 9.16393e-041
1678.936401 -32.963074 500.126495 9.15889e-041
1688.490967 470.804138 503.010010 9.16645e-041
1671.919922 -471.296417 504.390442 9.16267e-041
1707.754517 28.888184 515.339966 9.15889e-041
1699.598877 -413.076996 512.847534 1.40505e-038
1678.930298 -94.427887 506.532867 9.15384e-041
1670.965454 -342.338013 504.098969 9.15636e-041
1671.021118 150.728683 504.116638 9.15132e-041
1662.403442 -277.953979 501.483002 9.16267e-041
1700.964600 216.316742 513.265625 9.16267e-041
1659.198486 -215.587845 500.503906 9.14768e-041
1696.408325 278.952209 511.873566 1.07444e-038
1695.791748 -157.628082 511.684601 9.15763e-041
1701.006592 343.810516 513.278625 9.15384e-041
1705.671509 -95.893311 514.703369 9.15636e-041
1712.644653 411.592896 516.834595 9.16267e-041
1684.805542 -33.102703 508.328033 1.65268e-039
1686.700195 470.804138 508.907623 9.16393e-041
1675.661133 -472.849335 511.943024 9.16898e-041
1705.920654 28.888174 521.304749 9.16771e-041
1697.773804 -413.076996 518.783875 1.72647e-038
1684.759521 -94.846588 514.758179 9.1488e-041
1672.922119 -343.101288 511.095856 9.15636e-041
1682.550415 151.948853 514.075073 9.15763e-041
1668.166748 -279.205444 509.624786 9.16393e-041
1693.448730 215.585510 517.446716 9.16141e-041
1657.416748 -215.587860 506.299286 9.16267e-041
1692.699463 278.639343 517.214966 8.26161e-040
1692.067383 -157.453781 517.018860 9.15132e-041
1702.931030 344.573761 520.380371 7.43832e-039
1688.575562 -95.055931 515.938721 2.4792e-039
1710.805542 411.592896 522.816467 9.16645e-041
1684.906616 -33.137615 514.803772 9.15384e-041
1692.271118 472.874664 517.082703 9.16771e-041
